ply
format ascii 1.0
element vertex 1400
property float x
property float y
property float z
property uchar red
property uchar green
property uchar blue
end_header
-1.2656 2.1190 -1.2950 255 255 255
-1.2731 2.1171 -1.3058 255 255 255
-1.2998 2.1080 -1.3602 255 251 223
-1.3031 2.1081 -1.3586 255 255 236
-1.3060 2.1082 -1.3561 255 255 239
-1.3093 2.1082 -1.3549 255 255 245
-1.3132 2.1080 -1.3548 255 255 255
-1.3182 2.1074 -1.3571 255 255 255
-2.8802 1.6171 -4.2584 183 210 236
-2.6939 1.6863 -3.8350 255 255 255
-2.7071 1.6923 -3.7866 255 255 255
0.0338 1.9693 -3.0986 255 255 255
0.0165 1.9656 -3.1201 255 255 255
0.0152 1.9593 -3.1704 255 255 255
0.0079 1.9536 -3.2127 255 255 255
0.0110 1.9459 -3.2763 255 255 255
0.0101 1.9384 -3.3358 255 255 255
0.0128 1.9298 -3.4060 255 255 255
0.0185 1.9201 -3.4862 255 255 255
0.0217 1.9103 -3.5662 255 255 255
0.0245 1.9000 -3.6503 255 255 255
0.0239 1.8897 -3.7326 255 255 255
-0.1063 1.9081 -3.5269 79 115 143
-0.0821 1.8918 -3.6686 98 143 180
1.9278 1.3835 -8.6411 121 176 220
1.8980 1.3559 -8.8492 118 176 213
1.8801 1.3231 -9.1046 115 166 211
1.9623 1.2592 -9.6533 108 157 193
2.0589 1.1853 -10.2890 75 98 113
0.4117 0.9912 -11.1129 55 86 101
0.1454 1.0779 -10.2990 61 87 102
-0.1282 1.1945 -9.2413 71 108 124
-0.4838 1.4300 -7.1939 42 68 91
-0.6275 1.4885 -6.6610 44 60 83
-0.7278 1.5086 -6.4549 46 85 105
-0.8547 1.5858 -5.7794 69 92 114
-1.0298 1.8147 -3.8652 15 58 109
-1.0743 1.8221 -3.7854 30 55 74
-1.1144 1.8203 -3.7824 25 50 74
-1.1545 1.8199 -3.7674 32 47 50
-1.1942 1.8192 -3.7554 31 39 49
-1.2333 1.8198 -3.7330 15 61 126
-1.2705 1.8253 -3.6729 26 66 127
-1.3059 1.8308 -3.6124 29 65 121
-1.3379 1.8397 -3.5268 36 72 128
-1.3646 1.8532 -3.4067 63 89 172
-1.2088 2.1161 -1.3676 190 197 200
-1.2123 2.1166 -1.3621 224 211 196
-1.2153 2.1174 -1.3538 220 206 182
-1.2179 2.1185 -1.3440 214 208 191
-1.2205 2.1193 -1.3363 204 199 186
-1.2231 2.1199 -1.3302 199 180 157
-1.2256 2.1205 -1.3243 191 170 159
-1.2280 2.1211 -1.3188 175 162 151
-1.2301 2.1217 -1.3127 187 169 148
-1.2323 2.1222 -1.3077 189 180 155
-1.2346 2.1226 -1.3037 195 182 153
-1.2369 2.1229 -1.3004 200 182 156
-1.2393 2.1231 -1.2976 196 188 169
-1.2417 2.1233 -1.2953 205 193 175
-1.2441 2.1234 -1.2931 206 196 173
-1.2465 2.1235 -1.2913 201 196 172
-1.2489 2.1236 -1.2896 208 203 179
-1.2514 2.1236 -1.2881 216 211 196
-1.2538 2.1236 -1.2868 214 211 194
-1.2564 2.1236 -1.2859 218 223 208
-1.2591 2.1235 -1.2853 227 241 231
-1.2624 2.1232 -1.2864 248 255 248
-1.2673 2.1224 -1.2910 255 255 255
-1.2750 2.1206 -1.3020 255 255 255
-1.2999 2.1132 -1.3503 245 241 212
-1.3020 2.1135 -1.3467 243 241 214
-1.3050 2.1136 -1.3449 245 242 218
-1.3080 2.1136 -1.3433 248 253 245
-1.3108 2.1137 -1.3415 250 249 235
-1.3138 2.1137 -1.3401 249 251 232
-1.3166 2.1137 -1.3384 242 255 243
-1.3196 2.1137 -1.3371 250 255 242
-1.3223 2.1138 -1.3354 242 248 235
0.0376 1.9982 -3.1038 255 255 255
0.0201 1.9949 -3.1251 255 255 255
0.0199 1.9891 -3.1775 255 255 255
0.0122 1.9841 -3.2193 255 255 255
0.0157 1.9772 -3.2839 255 255 255
0.0145 1.9706 -3.3433 255 255 255
0.0185 1.9627 -3.4164 255 255 255
0.0245 1.9541 -3.4976 255 255 255
0.0293 1.9452 -3.5812 255 255 255
0.0359 1.9353 -3.6742 255 255 255
0.0437 1.9246 -3.7756 255 255 255
-0.1022 1.9428 -3.5361 79 115 141
0.0347 1.9057 -3.9424 92 157 192
1.9938 1.4795 -8.8022 137 189 239
2.0091 1.4442 -9.1304 125 190 236
2.0839 1.3922 -9.6401 117 181 237
2.0801 1.3549 -9.9771 115 166 205
2.0055 1.3327 -10.1414 82 120 152
1.4389 1.4421 -8.8619 71 109 148
0.9866 1.5318 -7.8183 75 121 160
0.9413 1.5096 -7.9970 74 122 166
0.9326 1.4737 -8.3193 75 124 161
1.0720 1.3835 -9.2090 68 115 149
0.4025 1.1394 -11.0880 52 80 105
0.1088 1.2340 -10.0798 62 92 117
-0.1735 1.3453 -8.9269 75 109 135
-0.5051 1.5347 -7.0391 45 82 103
-0.6504 1.5897 -6.4662 42 57 85
-0.7401 1.5974 -6.3511 57 75 103
-0.8295 1.6102 -6.1901 62 92 113
-1.0309 1.8530 -3.8830 24 72 146
-1.0754 1.8588 -3.8083 26 51 77
-1.1166 1.8598 -3.7787 40 49 74
-1.1569 1.8613 -3.7446 35 50 58
-1.1963 1.8611 -3.7259 28 44 65
-1.2354 1.8594 -3.7219 29 51 89
-1.2720 1.8652 -3.6506 31 61 127
-1.3065 1.8713 -3.5781 31 60 124
-1.3342 1.8856 -3.4343 51 81 131
-1.3805 1.8671 -3.5784 97 108 158
-1.2084 2.1208 -1.3612 215 197 169
-1.2117 2.1215 -1.3539 218 209 192
-1.2147 2.1221 -1.3464 216 208 189
-1.2175 2.1227 -1.3394 217 205 187
-1.2204 2.1232 -1.3336 205 185 158
-1.2231 2.1236 -1.3286 183 171 155
-1.2258 2.1240 -1.3239 183 164 143
-1.2285 2.1243 -1.3197 169 154 141
-1.2307 2.1248 -1.3141 166 148 123
-1.2327 2.1253 -1.3084 176 158 130
-1.2349 2.1257 -1.3040 178 167 144
-1.2371 2.1260 -1.3001 193 174 158
-1.2394 2.1262 -1.2970 191 183 173
-1.2417 2.1264 -1.2942 196 187 162
-1.2439 2.1265 -1.2918 199 194 166
-1.2463 2.1266 -1.2897 196 195 179
-1.2486 2.1267 -1.2879 196 196 171
-1.2510 2.1267 -1.2862 201 196 176
-1.2533 2.1268 -1.2846 203 199 175
-1.2557 2.1268 -1.2832 211 203 187
-1.2582 2.1268 -1.2821 213 207 196
-1.2608 2.1267 -1.2815 228 225 208
-1.2640 2.1264 -1.2824 239 235 222
-1.2683 2.1258 -1.2856 254 255 252
-1.2745 2.1247 -1.2930 255 255 255
-1.3010 2.1176 -1.3436 232 212 184
-1.3029 2.1180 -1.3396 218 209 184
-1.3052 2.1182 -1.3367 221 219 190
-1.3076 2.1183 -1.3343 237 215 188
-1.3100 2.1184 -1.3320 220 217 202
-1.3122 2.1186 -1.3295 220 217 202
-1.3146 2.1187 -1.3273 221 216 196
-1.3171 2.1187 -1.3254 218 218 218
0.0498 2.0266 -3.1228 255 255 255
0.0277 2.0240 -3.1369 255 255 255
0.0246 2.0193 -3.1846 255 255 255
0.0170 2.0148 -3.2270 255 255 255
0.0185 2.0090 -3.2883 255 255 255
0.0197 2.0030 -3.3523 255 255 255
0.0256 1.9959 -3.4293 255 255 255
0.0348 1.9880 -3.5174 255 255 255
0.0412 1.9800 -3.6051 255 255 255
0.0475 1.9715 -3.6984 255 255 255
0.0423 1.9641 -3.7724 255 255 255
-0.1023 1.9787 -3.5356 80 112 137
0.1778 1.9234 -4.2776 107 157 182
1.2370 1.7256 -6.9654 83 149 198
1.0490 1.7393 -6.7129 101 151 201
0.9655 1.7345 -6.7142 101 158 200
0.8821 1.7297 -6.7160 101 148 189
0.8023 1.7241 -6.7280 83 134 170
0.7578 1.7104 -6.8457 72 114 157
0.6878 1.7018 -6.8953 84 137 180
0.6766 1.6777 -7.1412 103 149 191
0.6326 1.6601 -7.2995 111 157 199
0.5631 1.6482 -7.3832 114 159 183
0.4867 1.6376 -7.4503 101 150 168
0.6734 1.5393 -8.5879 74 107 127
0.4070 1.2798 -11.1498 54 84 102
0.0968 1.3694 -10.0310 73 92 115
-0.2028 1.4767 -8.7337 76 107 134
-0.5496 1.6536 -6.6787 48 78 96
-0.6747 1.6872 -6.2545 42 58 81
-0.7497 1.6807 -6.2790 41 75 104
-0.8243 1.6728 -6.3180 69 92 116
-1.0303 1.8893 -3.9313 50 91 147
-1.0781 1.8999 -3.7926 28 43 74
-1.1199 1.9039 -3.7262 32 48 70
-1.1595 1.9043 -3.6991 29 53 70
-1.1982 1.9038 -3.6816 35 48 52
-1.2368 1.9019 -3.6785 42 50 55
-1.2728 1.9066 -3.6082 38 60 121
-1.3035 1.9179 -3.4727 43 75 133
-1.3249 1.9372 -3.2578 82 90 120
-1.2047 2.1250 -1.3615 202 188 171
-1.2080 2.1256 -1.3536 211 190 170
-1.2112 2.1260 -1.3469 212 200 184
-1.2143 2.1264 -1.3408 214 203 180
-1.2174 2.1267 -1.3362 202 189 164
-1.2204 2.1269 -1.3319 192 165 141
-1.2233 2.1271 -1.3281 173 152 131
-1.2262 2.1273 -1.3244 163 143 120
-1.2290 2.1275 -1.3212 149 137 119
-1.2317 2.1277 -1.3176 147 126 106
-1.2335 2.1282 -1.3106 155 134 120
-1.2355 2.1286 -1.3053 166 152 130
-1.2375 2.1290 -1.3007 183 156 128
-1.2396 2.1292 -1.2967 178 166 155
-1.2417 2.1294 -1.2935 196 175 159
-1.2439 2.1296 -1.2907 193 182 159
-1.2461 2.1297 -1.2883 193 184 161
-1.2484 2.1298 -1.2862 194 191 174
-1.2507 2.1298 -1.2844 196 188 172
-1.2529 2.1298 -1.2827 195 187 154
-1.2552 2.1299 -1.2811 193 183 167
-1.2575 2.1299 -1.2796 198 187 164
-1.2599 2.1298 -1.2785 199 192 169
-1.2624 2.1298 -1.2780 216 206 190
-1.2655 2.1295 -1.2785 233 220 209
-1.2695 2.1291 -1.2812 245 255 246
-1.2753 2.1281 -1.2876 255 255 255
-1.3016 2.1220 -1.3361 209 189 155
-1.3038 2.1222 -1.3330 203 189 174
-1.3060 2.1223 -1.3303 202 195 169
-1.3082 2.1225 -1.3277 205 194 163
-1.3103 2.1226 -1.3251 196 184 160
-1.3127 2.1226 -1.3231 200 175 148
-1.3153 2.1226 -1.3216 192 179 147
0.0605 2.0557 -3.1394 255 255 255
0.0363 2.0535 -3.1503 255 255 255
0.0305 2.0496 -3.1939 255 255 255
0.0211 2.0459 -3.2333 255 255 255
0.0242 2.0409 -3.2977 255 255 255
0.0270 2.0356 -3.3653 255 255 255
0.0349 2.0294 -3.4465 255 255 255
0.0453 2.0227 -3.5376 255 255 255
0.0521 2.0158 -3.6270 255 255 255
0.0582 2.0086 -3.7206 255 255 255
0.0429 2.0035 -3.7734 255 255 255
-0.0779 2.0115 -3.5910 75 113 147
0.2501 1.9605 -4.4472 79 115 143
0.8967 1.8597 -6.1395 79 121 162
0.8152 1.8564 -6.1245 75 117 157
0.7469 1.8511 -6.1432 62 105 131
0.6770 1.8459 -6.1589 76 130 163
0.6193 1.8386 -6.2104 86 137 180
0.6689 1.8110 -6.5852 72 121 155
0.5709 1.8095 -6.5362 47 91 136
0.4939 1.8041 -6.5508 94 160 190
0.4353 1.7944 -6.6298 101 157 194
0.3712 1.7854 -6.6975 108 161 199
0.3321 1.7694 -6.8683 109 161 195
0.3152 1.7457 -7.1497 75 113 139
0.3015 1.7182 -7.4808 65 92 118
0.3150 1.6783 -7.9827 72 91 110
0.0959 1.4983 -10.0595 68 91 106
-0.2124 1.5915 -8.6941 74 106 133
-0.5679 1.7452 -6.5473 54 74 80
-0.6932 1.7744 -6.0997 40 63 85
-0.7603 1.7632 -6.1927 46 75 100
-0.8182 1.7381 -6.4626 64 92 110
-0.9416 1.7972 -5.6473 69 92 116
-1.0804 1.9399 -3.7857 28 60 108
-1.1214 1.9402 -3.7543 37 53 61
-1.1618 1.9447 -3.6704 37 51 73
-1.2001 1.9461 -3.6274 44 60 67
-1.2370 1.9474 -3.5855 41 60 76
-1.2727 1.9489 -3.5424 52 61 84
-1.2884 1.9807 -3.1377 109 108 124
-1.2013 2.1287 -1.3673 208 194 172
-1.2044 2.1296 -1.3541 204 184 170
-1.2076 2.1300 -1.3464 217 203 186
-1.2109 2.1302 -1.3415 215 198 165
-1.2141 2.1304 -1.3372 215 193 157
-1.2173 2.1305 -1.3341 203 174 142
-1.2205 2.1306 -1.3309 179 157 130
-1.2237 2.1306 -1.3284 158 136 121
-1.2267 2.1307 -1.3256 158 131 121
-1.2297 2.1307 -1.3231 148 124 113
-1.2327 2.1307 -1.3209 130 111 97
-1.2353 2.1308 -1.3174 126 105 85
-1.2364 2.1316 -1.3077 146 127 111
-1.2382 2.1319 -1.3021 155 144 119
-1.2400 2.1322 -1.2973 177 158 144
-1.2419 2.1324 -1.2933 183 163 152
-1.2440 2.1326 -1.2900 190 179 154
-1.2461 2.1327 -1.2872 184 177 154
-1.2482 2.1327 -1.2848 197 178 155
-1.2504 2.1328 -1.2829 188 183 168
-1.2526 2.1328 -1.2810 180 179 163
-1.2549 2.1328 -1.2794 183 176 150
-1.2571 2.1328 -1.2779 180 178 158
-1.2594 2.1328 -1.2766 191 176 159
-1.2618 2.1327 -1.2756 186 185 169
-1.2643 2.1326 -1.2751 194 185 162
-1.2672 2.1324 -1.2755 208 206 186
-1.2708 2.1321 -1.2773 233 234 222
-1.2770 2.1312 -1.2843 241 255 255
-1.3023 2.1262 -1.3291 193 181 164
-1.3051 2.1261 -1.3276 190 178 156
-1.3073 2.1262 -1.3251 188 178 162
-1.3095 2.1263 -1.3227 190 179 154
-1.3117 2.1263 -1.3205 189 177 153
-1.3140 2.1264 -1.3185 191 179 161
0.0641 2.0858 -3.1441 255 255 255
0.0395 2.0838 -3.1546 255 255 255
0.0313 2.0807 -3.1943 255 255 255
0.0218 2.0776 -3.2336 255 255 255
0.0240 2.0735 -3.2965 255 255 255
0.0278 2.0691 -3.3660 255 255 255
0.0363 2.0642 -3.4485 255 255 255
0.0459 2.0588 -3.5382 255 255 255
0.0542 2.0531 -3.6308 255 255 255
0.0563 2.0476 -3.7160 255 255 255
0.0386 2.0434 -3.7637 255 255 255
-0.0702 2.0477 -3.6081 75 113 147
0.1694 2.0180 -4.2582 74 112 144
0.8458 1.9395 -6.0163 65 97 119
0.7759 1.9349 -6.0264 71 105 132
0.7425 1.9260 -6.1330 54 90 123
0.6035 1.9297 -5.9602 88 124 157
0.5141 1.9278 -5.9135 89 138 181
0.5025 1.9152 -6.0939 83 121 149
0.4382 1.9094 -6.1275 80 138 174
0.4311 1.8943 -6.3505 76 120 167
0.3366 1.8926 -6.2967 98 156 193
0.2716 1.8858 -6.3439 94 156 198
0.2107 1.8779 -6.4120 95 156 204
0.1777 1.8636 -6.6012 103 140 179
0.1608 1.8439 -6.8846 84 118 144
0.1492 1.8203 -7.2316 76 107 134
0.1846 1.7806 -7.8626 76 106 127
0.1113 1.6217 -10.2035 63 91 109
-0.2142 1.7020 -8.7154 75 109 133
-0.5842 1.8323 -6.4315 48 76 92
-0.7130 1.8584 -5.9286 37 62 86
-0.7672 1.8407 -6.1510 47 78 87
-0.8208 1.8159 -6.4801 79 95 116
-0.9384 1.8562 -5.7723 72 88 109
-1.0784 1.9725 -3.8953 35 79 142
-1.1227 1.9772 -3.7872 33 56 78
-1.1638 1.9816 -3.6851 64 73 101
-1.1989 2.0124 -3.1903 92 116 126
-1.1995 2.1023 -1.8292 110 114 129
-1.1964 2.1275 -1.4509 128 133 123
-1.1974 2.1330 -1.3677 210 202 183
-1.2006 2.1337 -1.3535 218 195 168
-1.2040 2.1340 -1.3464 214 190 177
-1.2072 2.1342 -1.3403 207 189 159
-1.2106 2.1343 -1.3371 215 194 169
-1.2140 2.1342 -1.3344 216 183 145
-1.2173 2.1342 -1.3321 197 174 129
-1.2207 2.1341 -1.3306 174 149 123
-1.2240 2.1340 -1.3291 154 126 103
-1.2273 2.1340 -1.3272 141 114 88
-1.2304 2.1339 -1.3251 136 107 98
-1.2336 2.1339 -1.3236 124 102 87
-1.2366 2.1338 -1.3216 123 99 91
-1.2391 2.1340 -1.3177 120 94 86
-1.2391 2.1348 -1.3045 146 120 108
-1.2406 2.1351 -1.2985 155 143 129
-1.2424 2.1353 -1.2939 165 155 139
-1.2442 2.1355 -1.2897 181 160 140
-1.2461 2.1356 -1.2865 179 172 153
-1.2482 2.1357 -1.2839 178 172 155
-1.2503 2.1357 -1.2816 182 177 160
-1.2524 2.1357 -1.2796 171 173 156
-1.2546 2.1357 -1.2778 172 166 156
-1.2568 2.1357 -1.2762 175 165 149
-1.2590 2.1357 -1.2749 179 165 139
-1.2613 2.1356 -1.2738 173 168 151
-1.2637 2.1355 -1.2730 180 167 156
-1.2662 2.1354 -1.2726 185 172 164
-1.2692 2.1352 -1.2732 212 191 177
-1.2729 2.1349 -1.2751 228 226 217
-1.2778 2.1343 -1.2794 245 251 254
-1.3038 2.1299 -1.3243 173 151 122
-1.3068 2.1298 -1.3234 174 160 143
-1.3088 2.1299 -1.3207 189 165 152
-1.3110 2.1299 -1.3184 199 179 154
-1.3133 2.1299 -1.3164 193 179 155
0.0620 2.1164 -3.1394 255 255 255
0.0360 2.1145 -3.1478 255 255 255
0.0291 2.1120 -3.1894 255 255 255
0.0217 2.1094 -3.2325 255 255 255
0.0226 2.1063 -3.2930 255 255 255
0.0262 2.1030 -3.3622 255 255 255
0.0318 2.0993 -3.4390 255 255 255
0.0423 2.0952 -3.5303 255 255 255
0.0507 2.0909 -3.6230 255 255 255
0.0527 2.0867 -3.7081 255 255 255
0.0413 2.0829 -3.7692 255 255 255
-0.0743 2.0852 -3.5987 81 115 139
0.1467 2.0664 -4.2052 70 109 136
0.8017 2.0154 -5.9097 57 99 140
0.7563 2.0094 -5.9779 96 150 185
0.5803 2.0134 -5.7092 141 206 243
0.4787 2.0122 -5.6214 169 221 250
0.4681 2.0032 -5.7849 95 133 161
0.4052 1.9985 -5.8076 109 147 179
0.3541 1.9925 -5.8693 102 152 181
0.2674 1.9902 -5.8204 64 101 122
0.1655 1.9899 -5.7146 98 145 175
0.1653 1.9771 -5.9650 106 160 200
0.1045 1.9712 -6.0126 101 152 191
0.0593 1.9627 -6.1291 86 134 178
0.0398 1.9492 -6.3717 89 127 161
0.0377 1.9308 -6.7282 75 112 138
0.0602 1.9047 -7.2600 74 107 127
0.0821 1.7636 -10.0330 50 82 106
-0.2559 1.8275 -8.4207 74 99 121
-0.6057 1.9185 -6.2688 48 75 82
-0.7160 1.9297 -5.9305 38 62 77
-0.7733 1.9169 -6.1180 49 77 91
-0.8264 1.8966 -6.4541 78 94 111
-0.9464 1.9294 -5.6849 81 95 114
-1.0271 1.9416 -5.3602 63 91 133
-1.1708 2.1240 -1.6519 159 190 224
-1.1791 2.1227 -1.6679 127 146 164
-1.1869 2.1273 -1.5700 118 117 124
-1.1901 2.1360 -1.3971 177 158 142
-1.1930 2.1380 -1.3544 242 223 202
-1.1963 2.1385 -1.3411 231 213 188
-1.1995 2.1388 -1.3327 199 187 172
-1.2028 2.1387 -1.3295 196 188 172
-1.2058 2.1389 -1.3231 207 196 173
-1.2085 2.1391 -1.3164 217 210 186
-1.2117 2.1390 -1.3142 212 204 190
-1.2155 2.1387 -1.3173 193 184 154
-1.2208 2.1378 -1.3293 185 158 134
-1.2244 2.1375 -1.3297 158 129 95
-1.2279 2.1374 -1.3288 134 105 80
-1.2312 2.1373 -1.3276 108 88 85
-1.2346 2.1371 -1.3270 100 86 90
-1.2379 2.1370 -1.3259 107 87 78
-1.2409 2.1369 -1.3236 97 86 84
-1.2430 2.1371 -1.3184 110 82 84
-1.2417 2.1380 -1.3012 126 113 109
-1.2431 2.1383 -1.2951 156 136 109
-1.2446 2.1384 -1.2903 164 151 122
-1.2463 2.1385 -1.2862 162 162 144
-1.2482 2.1386 -1.2830 179 165 143
-1.2502 2.1386 -1.2805 180 167 154
-1.2522 2.1386 -1.2783 175 167 139
-1.2543 2.1386 -1.2764 170 167 152
-1.2565 2.1386 -1.2748 170 160 144
-1.2587 2.1385 -1.2734 164 159 131
-1.2610 2.1384 -1.2723 160 151 126
-1.2633 2.1384 -1.2714 156 144 131
-1.2657 2.1382 -1.2708 163 153 130
-1.2684 2.1381 -1.2707 177 163 141
-1.2716 2.1379 -1.2717 189 176 163
-1.2754 2.1375 -1.2740 211 206 193
-1.2805 2.1370 -1.2784 239 245 251
-1.3067 2.1333 -1.3224 163 148 133
-1.3087 2.1333 -1.3197 151 141 129
-1.3106 2.1334 -1.3169 163 148 131
-1.3128 2.1334 -1.3148 179 170 144
0.0499 2.1470 -3.1184 255 255 255
0.0294 2.1452 -3.1355 255 255 255
0.0232 2.1433 -3.1781 255 255 255
0.0170 2.1413 -3.2232 255 255 255
0.0192 2.1391 -3.2860 255 255 255
0.0212 2.1368 -3.3519 255 255 255
0.0252 2.1344 -3.4256 255 255 255
0.0331 2.1317 -3.5114 255 255 255
0.0405 2.1288 -3.6015 255 255 255
0.0443 2.1258 -3.6897 255 255 255
0.0446 2.1226 -3.7761 255 255 255
-0.0733 2.1225 -3.6009 80 113 148
0.1003 2.1141 -4.0963 99 137 169
0.3432 2.1021 -4.7964 170 238 255
0.3040 2.0984 -4.8384 184 249 255
0.2810 2.0939 -4.9260 207 255 255
0.2497 2.0895 -4.9982 194 255 255
0.2471 2.0835 -5.1582 195 254 255
0.2786 2.0752 -5.4339 184 243 255
0.3051 2.0662 -5.7198 114 162 205
0.2216 2.0632 -5.6748 146 184 216
0.2230 2.0545 -5.9165 49 82 118
0.1189 2.0528 -5.8025 34 75 120
0.0361 2.0499 -5.7571 78 122 160
-0.0089 2.0436 -5.8593 85 131 173
-0.0466 2.0361 -6.0068 77 130 175
-0.0357 2.0224 -6.3996 72 99 127
-0.0327 2.0075 -6.8116 67 95 118
0.1649 1.9629 -8.3370 21 36 46
0.0152 1.9632 -8.0987 19 36 53
-0.0775 1.9551 -8.1794 28 43 53
-0.1886 1.9500 -8.1477 28 44 65
-0.3270 1.9517 -7.8906 60 89 103
-0.6332 2.0018 -6.0495 89 113 121
-0.7576 2.0139 -5.5290 37 57 68
-0.8150 2.0064 -5.6448 63 81 104
-1.1370 2.1293 -1.7874 174 183 210
-1.1560 2.1343 -1.6196 149 178 215
-1.1647 2.1346 -1.5980 115 127 149
-1.1738 2.1368 -1.5248 126 130 133
-1.1808 2.1395 -1.4408 153 143 129
-1.1855 2.1416 -1.3757 179 172 169
-1.1891 2.1425 -1.3464 242 223 202
-1.1925 2.1427 -1.3352 241 218 191
-1.1957 2.1428 -1.3263 233 214 197
-1.1988 2.1429 -1.3200 216 207 196
-1.2018 2.1429 -1.3138 229 222 205
-1.2047 2.1429 -1.3094 231 219 201
-1.2077 2.1429 -1.3070 213 199 177
-1.2108 2.1427 -1.3057 206 191 174
-1.2140 2.1426 -1.3055 198 187 174
-1.2174 2.1423 -1.3065 200 177 151
-1.2210 2.1421 -1.3084 185 167 143
-1.2256 2.1415 -1.3154 163 143 120
-1.2318 2.1407 -1.3292 113 92 81
-1.2359 2.1404 -1.3314 82 74 87
-1.2398 2.1401 -1.3325 79 63 94
-1.2433 2.1399 -1.3321 73 59 91
-1.2466 2.1398 -1.3309 66 60 82
-1.2476 2.1401 -1.3215 80 75 87
-1.2439 2.1412 -1.2971 124 114 102
-1.2452 2.1413 -1.2913 155 131 118
-1.2467 2.1414 -1.2864 159 140 130
-1.2484 2.1415 -1.2827 169 154 139
-1.2503 2.1415 -1.2799 170 158 145
-1.2522 2.1414 -1.2774 167 159 142
-1.2542 2.1414 -1.2753 176 157 132
-1.2563 2.1414 -1.2735 160 160 135
-1.2584 2.1413 -1.2721 163 144 121
-1.2607 2.1412 -1.2710 161 140 118
-1.2630 2.1411 -1.2700 156 144 133
-1.2654 2.1410 -1.2694 152 133 121
-1.2680 2.1409 -1.2692 162 137 117
-1.2708 2.1407 -1.2694 161 153 139
-1.2740 2.1405 -1.2705 188 169 159
-1.2779 2.1402 -1.2728 211 203 191
-1.2831 2.1397 -1.2773 237 246 251
-1.3083 2.1368 -1.3182 158 134 121
-1.3105 2.1368 -1.3161 153 131 122
-1.3126 2.1367 -1.3137 154 141 137
0.0430 2.1771 -3.1059 255 255 255
0.0236 2.1756 -3.1246 255 255 255
0.0186 2.1744 -3.1691 255 255 255
0.0134 2.1731 -3.2157 255 255 255
0.0159 2.1719 -3.2790 255 255 255
0.0183 2.1706 -3.3456 255 255 255
0.0218 2.1692 -3.4182 255 255 255
0.0274 2.1677 -3.4995 255 255 255
0.0329 2.1662 -3.5854 255 255 255
0.0388 2.1645 -3.6776 255 255 255
0.0313 2.1626 -3.7468 255 255 255
-0.0704 2.1599 -3.6075 83 113 138
0.0426 2.1586 -3.9613 108 157 189
0.2217 2.1569 -4.5017 155 209 249
0.1986 2.1541 -4.5732 201 255 255
0.1709 2.1511 -4.6383 203 255 255
0.1644 2.1480 -4.7667 220 255 255
0.1629 2.1446 -4.9204 182 248 255
0.1552 2.1410 -5.0694 197 255 255
0.1504 2.1370 -5.2412 190 255 255
0.1298 2.1329 -5.3784 158 207 239
0.1345 2.1280 -5.6169 118 165 191
0.0544 2.1244 -5.5738 72 115 146
0.0095 2.1200 -5.6611 45 78 93
-0.0543 2.1160 -5.6818 28 60 84
-0.0981 2.1112 -5.7918 46 79 99
-0.1511 2.1064 -5.8748 31 48 64
-0.2044 2.1014 -5.9684 17 41 58
-0.2168 2.0936 -6.2977 19 42 64
-0.2097 2.0832 -6.8000 19 43 53
-0.2292 2.0728 -7.2276 17 41 58
-0.2745 2.0630 -7.5636 32 44 66
-0.4028 2.0612 -7.3182 29 52 74
-0.6194 2.0732 -6.2028 128 147 163
-1.1269 2.1426 -1.6774 163 197 226
-1.1389 2.1428 -1.6382 142 169 197
-1.1503 2.1432 -1.5897 113 125 136
-1.1625 2.1445 -1.4965 124 130 140
-1.1705 2.1452 -1.4430 158 159 150
-1.1763 2.1454 -1.4193 161 152 145
-1.1814 2.1458 -1.3893 180 178 172
-1.1855 2.1463 -1.3542 210 196 179
-1.1891 2.1464 -1.3392 216 203 176
-1.1925 2.1465 -1.3284 227 207 182
-1.1956 2.1465 -1.3199 221 211 195
-1.1986 2.1465 -1.3135 224 215 192
-1.2015 2.1464 -1.3082 221 210 185
-1.2045 2.1463 -1.3048 216 197 181
-1.2074 2.1462 -1.3025 212 191 175
-1.2104 2.1461 -1.3011 199 178 165
-1.2136 2.1459 -1.3008 203 175 150
-1.2168 2.1457 -1.3012 196 174 161
-1.2201 2.1455 -1.3020 185 170 153
-1.2236 2.1453 -1.3036 179 170 144
-1.2274 2.1450 -1.3061 167 150 119
-1.2363 2.1440 -1.3317 114 94 91
-1.2413 2.1436 -1.3375 75 65 99
-1.2454 2.1433 -1.3391 64 66 91
-1.2497 2.1430 -1.3411 57 58 94
-1.2540 2.1427 -1.3432 53 54 95
-1.2491 2.1436 -1.3137 74 81 109
-1.2463 2.1442 -1.2936 131 109 100
-1.2474 2.1443 -1.2876 152 130 119
-1.2487 2.1443 -1.2830 157 143 121
-1.2504 2.1443 -1.2795 163 144 121
-1.2523 2.1443 -1.2768 167 146 121
-1.2541 2.1442 -1.2744 169 146 121
-1.2561 2.1441 -1.2724 158 139 127
-1.2583 2.1440 -1.2710 153 134 120
-1.2605 2.1439 -1.2698 153 139 117
-1.2628 2.1438 -1.2688 152 134 113
-1.2652 2.1437 -1.2683 144 129 119
-1.2677 2.1436 -1.2679 147 124 95
-1.2703 2.1434 -1.2678 150 127 105
-1.2732 2.1433 -1.2682 163 139 126
-1.2764 2.1431 -1.2693 174 159 149
-1.2803 2.1428 -1.2716 209 203 193
-1.2859 2.1424 -1.2766 237 246 246
-1.3099 2.1402 -1.3141 152 128 118
-1.3125 2.1401 -1.3129 144 121 121
0.0357 2.2070 -3.0928 255 255 255
0.0143 2.2057 -3.1079 255 255 255
0.0108 2.2052 -3.1547 255 255 255
0.0048 2.2046 -3.1996 255 255 255
0.0090 2.2044 -3.2655 255 255 255
0.0137 2.2042 -3.3362 255 255 255
0.0180 2.2039 -3.4102 255 255 255
0.0251 2.2037 -3.4942 255 255 255
0.0298 2.2034 -3.5785 255 255 255
0.0377 2.2032 -3.6749 255 255 255
0.0317 2.2024 -3.7474 255 255 255
-0.0556 2.1983 -3.6408 79 115 141
-0.0064 2.1996 -3.8464 109 154 180
0.1694 2.2060 -4.3749 191 239 255
0.1039 2.2026 -4.3350 215 255 255
0.0850 2.2010 -4.4139 234 255 255
0.0673 2.1994 -4.5030 237 255 255
0.0537 2.1979 -4.6110 228 255 255
0.0461 2.1966 -4.7468 225 255 255
0.0408 2.1952 -4.9024 204 255 255
0.0348 2.1938 -5.0713 192 252 255
0.0565 2.1931 -5.3527 53 98 129
-0.0190 2.1892 -5.3124 35 71 83
-0.0736 2.1859 -5.3480 30 58 75
-0.1415 2.1822 -5.3332 26 48 77
-0.2067 2.1786 -5.3282 34 50 53
-0.2568 2.1753 -5.3928 24 42 47
-0.2958 2.1723 -5.5224 32 44 66
-0.3300 2.1692 -5.6995 31 39 49
-0.3377 2.1663 -6.0637 27 41 59
-0.3817 2.1625 -6.2645 33 48 56
-0.4736 2.1581 -6.1655 47 74 79
-1.0664 2.1525 -2.0233 74 78 93
-1.1174 2.1519 -1.6867 97 112 124
-1.1342 2.1515 -1.6039 95 110 120
-1.1473 2.1512 -1.5372 103 114 120
-1.1588 2.1510 -1.4636 157 158 153
-1.1657 2.1508 -1.4371 171 165 157
-1.1716 2.1506 -1.4178 161 160 151
-1.1770 2.1505 -1.3935 176 169 150
-1.1817 2.1504 -1.3698 195 185 171
-1.1857 2.1503 -1.3470 210 196 181
-1.1893 2.1502 -1.3350 213 195 167
-1.1925 2.1501 -1.3240 213 203 187
-1.1956 2.1500 -1.3156 218 210 196
-1.1985 2.1498 -1.3094 222 203 191
-1.2014 2.1497 -1.3047 221 190 179
-1.2043 2.1496 -1.3014 216 190 175
-1.2073 2.1494 -1.2992 206 178 157
-1.2102 2.1493 -1.2978 205 177 158
-1.2133 2.1491 -1.2970 204 179 159
-1.2164 2.1489 -1.2968 203 179 145
-1.2195 2.1487 -1.2970 205 185 172
-1.2228 2.1486 -1.2976 196 184 160
-1.2262 2.1484 -1.2990 189 167 154
-1.2299 2.1481 -1.3018 166 143 123
-1.2421 2.1472 -1.3395 93 92 108
-1.2469 2.1469 -1.3438 72 69 104
-1.2516 2.1466 -1.3471 56 61 107
-1.2563 2.1463 -1.3501 53 59 119
-1.2603 2.1461 -1.3504 37 56 125
-1.2493 2.1470 -1.3023 72 82 103
-1.2484 2.1472 -1.2899 136 109 99
-1.2495 2.1472 -1.2842 147 126 110
-1.2509 2.1471 -1.2801 154 133 119
-1.2526 2.1470 -1.2768 158 139 125
-1.2543 2.1469 -1.2741 149 142 117
-1.2562 2.1469 -1.2720 155 134 118
-1.2583 2.1468 -1.2703 154 133 113
-1.2605 2.1466 -1.2690 145 122 100
-1.2627 2.1465 -1.2680 139 118 93
-1.2651 2.1464 -1.2674 136 126 110
-1.2676 2.1463 -1.2670 146 127 111
-1.2702 2.1461 -1.2668 141 128 120
-1.2729 2.1460 -1.2669 146 132 115
-1.2757 2.1458 -1.2673 155 136 113
-1.2791 2.1456 -1.2686 174 155 148
-1.2831 2.1454 -1.2710 207 187 178
-1.2884 2.1450 -1.2755 240 247 250
-1.3127 2.1434 -1.3124 135 123 126
0.0268 2.2365 -3.0770 255 255 255
0.0033 2.2353 -3.0883 255 255 255
-0.0004 2.2355 -3.1343 255 255 255
-0.0056 2.2356 -3.1802 255 255 255
0.0009 2.2365 -3.2499 255 255 255
0.0078 2.2375 -3.3243 255 255 255
0.0164 2.2387 -3.4063 255 255 255
0.0264 2.2400 -3.4961 255 255 255
0.0316 2.2410 -3.5816 255 255 255
0.0415 2.2424 -3.6826 255 255 255
0.0424 2.2432 -3.7706 255 255 255
-0.0437 2.2375 -3.6677 85 116 145
-0.0084 2.2409 -3.8419 97 148 180
0.1282 2.2522 -4.2751 202 255 255
0.0327 2.2459 -4.1559 183 246 255
0.0119 2.2453 -4.2231 247 255 255
-0.0105 2.2446 -4.2916 237 255 255
-0.0314 2.2441 -4.3702 245 255 255
-0.0424 2.2444 -4.4854 250 255 255
-0.0359 2.2463 -4.6659 217 255 255
-0.0299 2.2482 -4.8626 193 255 255
0.0114 2.2534 -5.2017 44 75 113
-0.0636 2.2488 -5.1554 30 59 82
-0.1288 2.2450 -5.1410 32 50 71
-0.1913 2.2415 -5.1361 30 53 75
-0.2474 2.2385 -5.1584 30 50 59
-0.3010 2.2359 -5.1957 21 37 42
-0.3546 2.2332 -5.2380 29 41 52
-0.4009 2.2314 -5.3274 28 41 49
-0.4544 2.2289 -5.3900 32 49 61
-1.0781 2.1637 -1.7682 83 96 105
-1.0997 2.1618 -1.6870 98 102 105
-1.1163 2.1604 -1.6258 112 111 118
-1.1321 2.1589 -1.5553 122 122 124
-1.1441 2.1578 -1.5028 105 106 96
-1.1539 2.1569 -1.4575 157 153 147
-1.1608 2.1563 -1.4361 172 177 171
-1.1669 2.1558 -1.4185 164 163 147
-1.1724 2.1554 -1.4017 173 172 156
-1.1776 2.1549 -1.3784 179 176 159
-1.1820 2.1545 -1.3586 202 188 173
-1.1859 2.1541 -1.3423 203 195 176
-1.1894 2.1538 -1.3316 210 196 179
-1.1926 2.1536 -1.3210 204 196 186
-1.1956 2.1533 -1.3125 210 202 190
-1.1985 2.1531 -1.3067 198 182 174
-1.2014 2.1529 -1.3024 199 171 159
-1.2043 2.1527 -1.2993 190 169 149
-1.2072 2.1525 -1.2970 207 166 142
-1.2101 2.1524 -1.2952 201 174 155
-1.2131 2.1522 -1.2940 204 183 167
-1.2160 2.1520 -1.2934 203 196 172
-1.2190 2.1518 -1.2930 208 198 180
-1.2221 2.1517 -1.2929 201 191 179
-1.2253 2.1515 -1.2935 200 181 167
-1.2286 2.1513 -1.2946 187 164 140
-1.2324 2.1511 -1.2976 166 144 137
-1.2480 2.1507 -1.3468 77 82 124
-1.2537 2.1504 -1.3534 43 58 121
-1.2583 2.1502 -1.3556 39 51 117
-1.2627 2.1499 -1.3570 45 49 105
-1.2667 2.1497 -1.3570 50 59 103
-1.2557 2.1499 -1.3112 84 77 99
-1.2506 2.1500 -1.2867 124 110 95
-1.2517 2.1499 -1.2816 135 123 108
-1.2531 2.1498 -1.2775 147 135 119
-1.2547 2.1497 -1.2744 146 133 120
-1.2566 2.1496 -1.2721 137 126 117
-1.2585 2.1494 -1.2702 140 118 107
-1.2606 2.1493 -1.2688 138 115 102
-1.2628 2.1492 -1.2676 136 118 94
-1.2652 2.1490 -1.2669 144 124 94
-1.2676 2.1489 -1.2664 135 123 126
-1.2701 2.1488 -1.2661 140 118 107
-1.2727 2.1486 -1.2660 134 120 98
-1.2754 2.1485 -1.2660 137 128 105
-1.2784 2.1483 -1.2666 146 138 124
-1.2818 2.1481 -1.2680 179 155 147
-1.2858 2.1479 -1.2704 218 210 194
-1.3108 2.1468 -1.3084 208 200 207
0.0220 2.2661 -3.0680 255 255 255
-0.0064 2.2645 -3.0708 255 255 255
-0.0107 2.2653 -3.1155 255 255 255
-0.0137 2.2663 -3.1648 255 255 255
-0.0057 2.2685 -3.2370 255 255 255
0.0036 2.2708 -3.3156 255 255 255
0.0168 2.2737 -3.4064 255 255 255
0.0299 2.2767 -3.5025 255 255 255
0.0351 2.2790 -3.5883 255 255 255
0.0456 2.2820 -3.6909 255 255 255
0.0493 2.2844 -3.7853 255 255 255
-0.0310 2.2778 -3.6963 82 116 144
-0.0007 2.2833 -3.8600 103 152 187
0.0780 2.2946 -4.1536 207 255 255
-0.0030 2.2880 -4.0665 110 162 212
-0.0514 2.2851 -4.0579 247 255 255
-0.0647 2.2864 -4.1445 240 255 255
-0.0810 2.2875 -4.2305 242 255 255
-0.0944 2.2891 -4.3322 240 255 255
-0.0908 2.2932 -4.4972 196 255 255
-0.0938 2.2968 -4.6567 204 255 255
-0.0586 2.3059 -4.9642 127 167 185
-0.0937 2.3060 -5.0503 29 53 82
-0.1515 2.3030 -5.0592 30 55 74
-0.2007 2.3012 -5.1039 25 51 68
-0.2594 2.2982 -5.1133 31 48 64
-0.3322 2.2928 -5.0581 28 42 68
-0.4075 2.2868 -4.9821 28 44 49
-0.4258 2.2910 -5.2033 54 64 75
-1.0764 2.1729 -1.7195 94 103 101
-1.0961 2.1703 -1.6537 131 129 129
-1.1125 2.1680 -1.5968 127 131 130
-1.1275 2.1658 -1.5380 102 112 123
-1.1387 2.1642 -1.4970 101 105 109
-1.1482 2.1628 -1.4614 172 177 176
-1.1555 2.1619 -1.4401 165 166 157
-1.1619 2.1611 -1.4220 157 162 160
-1.1677 2.1604 -1.4060 161 157 144
-1.1730 2.1598 -1.3899 174 161 148
-1.1780 2.1590 -1.3685 183 175 159
-1.1822 2.1584 -1.3521 197 190 164
-1.1860 2.1578 -1.3391 201 180 155
-1.1895 2.1574 -1.3290 200 182 156
-1.1927 2.1570 -1.3188 202 188 166
-1.1957 2.1566 -1.3105 202 189 178
-1.1986 2.1563 -1.3052 186 166 159
-1.2015 2.1561 -1.3010 181 151 130
-1.2044 2.1558 -1.2978 183 157 145
-1.2072 2.1556 -1.2952 187 168 154
-1.2101 2.1554 -1.2931 198 188 153
-1.2129 2.1552 -1.2916 202 197 182
-1.2158 2.1550 -1.2905 210 202 186
-1.2187 2.1549 -1.2897 210 206 193
-1.2216 2.1547 -1.2891 211 203 187
-1.2246 2.1545 -1.2890 208 189 177
-1.2277 2.1543 -1.2896 192 180 165
-1.2311 2.1542 -1.2910 170 155 140
-1.2355 2.1541 -1.2963 147 136 138
-1.2552 2.1544 -1.3577 53 60 106
-1.2601 2.1542 -1.3606 42 55 93
-1.2647 2.1540 -1.3624 45 50 95
-1.2702 2.1538 -1.3668 43 56 90
-1.2769 2.1536 -1.3744 70 64 77
-1.2721 2.1532 -1.3482 87 79 72
-1.2528 2.1528 -1.2837 126 102 83
-1.2539 2.1526 -1.2787 129 118 93
-1.2553 2.1525 -1.2751 138 126 108
-1.2571 2.1523 -1.2726 134 123 100
-1.2590 2.1521 -1.2706 134 111 84
-1.2610 2.1520 -1.2689 135 116 93
-1.2631 2.1518 -1.2675 131 117 95
-1.2653 2.1517 -1.2666 132 120 102
-1.2677 2.1516 -1.2659 132 118 101
-1.2701 2.1514 -1.2654 127 116 85
-1.2727 2.1513 -1.2653 130 111 95
-1.2753 2.1511 -1.2651 123 118 98
-1.2780 2.1510 -1.2653 134 119 102
-1.2811 2.1508 -1.2661 154 129 121
-1.2846 2.1506 -1.2677 168 167 156
-1.2893 2.1505 -1.2710 242 240 235
0.0082 2.2944 -3.0443 255 255 255
-0.0145 2.2935 -3.0561 255 255 255
-0.0170 2.2952 -3.1036 255 255 255
-0.0162 2.2974 -3.1593 255 255 255
-0.0054 2.3010 -3.2365 255 255 255
0.0031 2.3045 -3.3138 255 255 255
0.0175 2.3089 -3.4069 255 255 255
0.0296 2.3132 -3.5012 255 255 255
0.0354 2.3169 -3.5884 255 255 255
0.0461 2.3214 -3.6915 255 255 255
0.0390 2.3238 -3.7626 255 255 255
-0.0269 2.3179 -3.7055 140 175 192
-0.0283 2.3213 -3.7954 164 208 244
-0.0179 2.3267 -3.9207 136 183 220
-0.0490 2.3261 -3.9509 112 151 178
-0.1099 2.3209 -3.9051 250 255 255
-0.1122 2.3251 -4.0161 247 255 255
-0.1099 2.3303 -4.1494 234 255 255
-0.1184 2.3342 -4.2628 232 255 255
-0.1446 2.3354 -4.3315 170 216 255
-0.1881 2.3337 -4.3504 70 99 147
-0.2255 2.3332 -4.3924 76 107 140
-0.2658 2.3323 -4.4281 69 96 126
-0.3030 2.3323 -4.4803 55 86 101
-0.3439 2.3316 -4.5238 55 83 99
-0.3898 2.3301 -4.5510 42 81 108
-0.4344 2.3290 -4.5884 49 76 100
-0.9653 2.2066 -2.1843 74 84 97
-1.0672 2.1830 -1.7195 108 107 121
-1.0877 2.1793 -1.6544 118 125 123
-1.1048 2.1762 -1.5990 120 124 123
-1.1194 2.1734 -1.5489 106 112 120
-1.1316 2.1711 -1.5069 101 107 108
-1.1417 2.1692 -1.4716 158 158 160
-1.1496 2.1679 -1.4487 185 179 169
-1.1566 2.1667 -1.4288 170 167 154
-1.1628 2.1657 -1.4118 156 162 149
-1.1684 2.1648 -1.3960 177 174 159
-1.1737 2.1638 -1.3778 175 170 153
-1.1783 2.1629 -1.3608 186 179 156
-1.1825 2.1621 -1.3474 198 187 176
-1.1862 2.1615 -1.3372 198 174 147
-1.1897 2.1610 -1.3283 190 171 148
-1.1929 2.1604 -1.3182 184 174 158
-1.1959 2.1599 -1.3101 178 170 156
-1.1988 2.1596 -1.3045 180 166 148
-1.2017 2.1592 -1.3002 178 159 143
-1.2045 2.1589 -1.2967 189 158 149
-1.2073 2.1587 -1.2938 190 171 148
-1.2101 2.1584 -1.2913 199 180 166
-1.2128 2.1582 -1.2893 212 197 186
-1.2156 2.1580 -1.2879 213 203 185
-1.2184 2.1578 -1.2867 212 209 191
-1.2212 2.1576 -1.2858 210 202 186
-1.2241 2.1574 -1.2852 212 197 180
-1.2270 2.1572 -1.2853 204 185 168
-1.2302 2.1571 -1.2863 180 167 156
-1.2337 2.1570 -1.2883 171 147 132
-1.2462 2.1576 -1.3233 116 108 119
-1.2615 2.1584 -1.3644 45 48 88
-1.2668 2.1582 -1.3682 42 50 91
-1.2733 2.1581 -1.3753 53 57 67
-1.2815 2.1581 -1.3871 62 59 85
-1.2918 2.1582 -1.4037 83 76 80
-1.2637 2.1563 -1.3128 104 91 82
-1.2548 2.1555 -1.2804 123 104 92
-1.2560 2.1553 -1.2761 126 114 96
-1.2577 2.1551 -1.2733 131 112 102
-1.2595 2.1549 -1.2711 128 107 94
-1.2615 2.1547 -1.2694 126 114 98
-1.2635 2.1545 -1.2677 132 111 91
-1.2656 2.1544 -1.2666 124 114 100
-1.2679 2.1542 -1.2657 124 111 96
-1.2702 2.1540 -1.2650 122 107 95
-1.2727 2.1539 -1.2647 127 103 90
-1.2752 2.1537 -1.2643 126 104 100
-1.2778 2.1536 -1.2644 134 112 106
-1.2807 2.1534 -1.2648 124 123 109
-1.2840 2.1533 -1.2659 143 134 136
-1.2880 2.1532 -1.2682 193 193 195
-0.0043 2.3223 -3.0226 255 255 255
-0.0223 2.3223 -3.0420 255 255 255
-0.0219 2.3251 -3.0942 255 255 255
-0.0177 2.3287 -3.1558 255 255 255
-0.0065 2.3335 -3.2336 255 255 255
0.0017 2.3380 -3.3103 255 255 255
0.0159 2.3438 -3.4030 255 255 255
0.0256 2.3492 -3.4925 255 255 255
0.0313 2.3542 -3.5794 255 255 255
0.0397 2.3599 -3.6774 255 255 255
0.0385 2.3643 -3.7612 255 255 255
-0.0347 2.3563 -3.6876 90 133 164
-0.0279 2.3625 -3.7963 80 122 163
-0.0111 2.3710 -3.9375 73 107 131
-0.0639 2.3668 -3.9138 53 87 111
-0.1305 2.3597 -3.8519 135 173 214
-0.1363 2.3647 -3.9510 154 212 253
-0.1306 2.3726 -4.0918 73 125 175
-0.1229 2.3816 -4.2511 76 118 152
-0.1673 2.3797 -4.2626 79 115 143
-0.2089 2.3786 -4.2849 80 109 134
-0.2525 2.3771 -4.3021 73 106 135
-0.2975 2.3753 -4.3163 68 103 122
-0.3558 2.3701 -4.2810 69 99 126
-0.4068 2.3667 -4.2711 69 91 118
-0.4527 2.3647 -4.2821 60 90 110
-0.7957 2.2714 -2.9031 74 88 105
-1.0524 2.1949 -1.7476 96 106 103
-1.0762 2.1895 -1.6723 115 131 134
-1.0940 2.1856 -1.6188 120 132 125
-1.1092 2.1822 -1.5721 113 119 129
-1.1223 2.1792 -1.5297 102 112 109
-1.1335 2.1766 -1.4931 114 122 113
-1.1428 2.1745 -1.4634 154 150 142
-1.1506 2.1729 -1.4410 150 148 143
-1.1575 2.1714 -1.4203 156 157 147
-1.1636 2.1701 -1.4025 165 166 157
-1.1691 2.1689 -1.3859 175 167 157
-1.1742 2.1676 -1.3669 176 171 158
-1.1787 2.1666 -1.3527 195 177 154
-1.1827 2.1658 -1.3429 205 187 157
-1.1864 2.1652 -1.3358 198 174 145
-1.1900 2.1646 -1.3290 185 158 132
-1.1932 2.1640 -1.3204 177 153 142
-1.1961 2.1633 -1.3105 171 161 147
-1.1990 2.1628 -1.3048 172 161 152
-1.2019 2.1624 -1.2999 188 166 153
-1.2046 2.1620 -1.2959 185 175 157
-1.2074 2.1617 -1.2926 199 175 160
-1.2101 2.1614 -1.2896 202 183 173
-1.2127 2.1611 -1.2874 208 202 188
-1.2154 2.1609 -1.2855 210 205 186
-1.2182 2.1606 -1.2841 215 205 189
-1.2209 2.1604 -1.2830 210 202 188
-1.2237 2.1602 -1.2822 202 197 182
-1.2265 2.1601 -1.2819 197 185 171
-1.2295 2.1599 -1.2823 194 173 152
-1.2328 2.1598 -1.2835 181 159 150
-1.2365 2.1597 -1.2865 155 135 128
-1.2622 2.1625 -1.3655 76 66 75
-1.2689 2.1626 -1.3737 47 55 90
-1.2764 2.1627 -1.3838 51 58 79
-1.2860 2.1630 -1.3991 58 57 73
-1.2985 2.1635 -1.4215 88 64 72
-1.3158 2.1644 -1.4555 120 96 83
-1.2813 2.1606 -1.3495 159 138 143
-1.2568 2.1581 -1.2773 124 100 90
-1.2584 2.1579 -1.2743 133 105 84
-1.2602 2.1576 -1.2720 127 106 92
-1.2621 2.1574 -1.2700 124 110 88
-1.2640 2.1572 -1.2682 125 112 90
-1.2661 2.1570 -1.2668 124 105 91
-1.2682 2.1568 -1.2656 125 111 96
-1.2704 2.1567 -1.2647 115 105 91
-1.2728 2.1565 -1.2642 121 97 86
-1.2752 2.1564 -1.2637 118 104 87
-1.2777 2.1562 -1.2636 116 101 95
-1.2805 2.1561 -1.2638 123 104 88
-1.2836 2.1559 -1.2647 132 106 94
-1.2871 2.1558 -1.2661 149 128 117
-0.0161 2.3497 -3.0022 255 255 255
-0.0294 2.3508 -3.0290 255 255 255
-0.0275 2.3547 -3.0834 255 255 255
-0.0207 2.3596 -3.1495 255 255 255
-0.0084 2.3658 -3.2294 255 255 255
0.0013 2.3718 -3.3087 255 255 255
0.0142 2.3788 -3.3991 255 255 255
0.0231 2.3854 -3.4868 255 255 255
0.0275 2.3914 -3.5709 255 255 255
0.0353 2.3985 -3.6678 255 255 255
0.0407 2.4056 -3.7657 255 255 255
-0.0192 2.3992 -3.7227 88 125 162
-0.0214 2.4053 -3.8117 82 116 142
-0.0331 2.4096 -3.8843 71 107 131
-0.0520 2.4127 -3.9442 67 103 136
-0.0792 2.4141 -3.9874 74 104 126
-0.1003 2.4173 -4.0507 80 109 134
-0.1260 2.4197 -4.1063 64 107 140
-0.1537 2.4219 -4.1608 76 107 134
-0.1945 2.4209 -4.1799 74 106 135
-0.2383 2.4192 -4.1910 68 106 138
-0.2834 2.4172 -4.1987 73 101 138
-0.3307 2.4146 -4.1989 70 95 121
-0.3818 2.4107 -4.1849 69 96 121
-0.4321 2.4070 -4.1719 59 91 118
-0.5198 2.3898 -3.9939 71 90 108
-1.0333 2.2090 -1.7913 104 102 102
-1.0607 2.2016 -1.7067 124 129 130
-1.0814 2.1962 -1.6453 114 126 127
-1.0974 2.1922 -1.5998 109 113 119
-1.1115 2.1885 -1.5583 94 99 91
-1.1236 2.1854 -1.5223 107 111 113
-1.1342 2.1825 -1.4891 116 114 114
-1.1433 2.1800 -1.4612 112 108 102
-1.1511 2.1780 -1.4374 120 116 106
-1.1582 2.1759 -1.4135 131 138 132
-1.1644 2.1741 -1.3929 162 161 148
-1.1699 2.1726 -1.3745 177 165 149
-1.1748 2.1710 -1.3554 194 185 162
-1.1790 2.1700 -1.3442 206 191 174
-1.1829 2.1692 -1.3365 219 191 168
-1.1866 2.1687 -1.3318 216 195 170
-1.1902 2.1683 -1.3291 189 161 117
-1.1936 2.1678 -1.3243 162 137 115
-1.1968 2.1672 -1.3186 151 125 106
-1.1994 2.1662 -1.3061 163 144 130
-1.2021 2.1656 -1.3005 173 158 150
-1.2048 2.1652 -1.2957 177 169 159
-1.2075 2.1647 -1.2917 184 171 165
-1.2101 2.1644 -1.2882 196 183 154
-1.2127 2.1640 -1.2856 209 190 174
-1.2153 2.1637 -1.2835 206 191 180
-1.2180 2.1635 -1.2818 202 197 180
-1.2207 2.1632 -1.2806 200 190 174
-1.2234 2.1630 -1.2797 201 191 177
-1.2261 2.1628 -1.2791 204 185 160
-1.2290 2.1626 -1.2789 193 179 157
-1.2320 2.1625 -1.2797 180 165 153
-1.2354 2.1625 -1.2814 167 154 141
-1.2398 2.1626 -1.2866 146 119 114
-1.2701 2.1670 -1.3762 61 59 73
-1.2790 2.1675 -1.3904 55 52 66
-1.2903 2.1683 -1.4107 64 51 67
-1.3082 2.1699 -1.4480 90 62 69
-1.3290 2.1716 -1.4900 124 103 108
-1.3463 2.1726 -1.5195 186 191 206
-1.2573 2.1610 -1.2778 155 131 120
-1.2595 2.1607 -1.2763 124 102 87
-1.2611 2.1605 -1.2734 124 105 89
-1.2629 2.1602 -1.2711 121 106 95
-1.2647 2.1600 -1.2690 110 100 82
-1.2666 2.1597 -1.2673 120 99 88
-1.2686 2.1595 -1.2658 109 99 87
-1.2707 2.1593 -1.2646 117 98 86
-1.2729 2.1591 -1.2639 121 97 84
-1.2752 2.1590 -1.2632 107 96 93
-1.2778 2.1588 -1.2630 108 93 83
-1.2805 2.1587 -1.2632 107 92 77
-1.2836 2.1586 -1.2641 124 97 96
-1.2870 2.1584 -1.2654 126 105 91
-0.0356 2.3752 -2.9691 255 255 255
-0.0441 2.3776 -3.0032 255 255 255
-0.0413 2.3824 -3.0587 255 255 255
-0.0335 2.3885 -3.1259 255 255 255
-0.0182 2.3965 -3.2105 255 255 255
-0.0079 2.4038 -3.2907 255 255 255
0.0046 2.4121 -3.3798 255 255 255
0.0114 2.4194 -3.4629 255 255 255
0.0170 2.4270 -3.5489 255 255 255
0.0250 2.4356 -3.6456 255 255 255
0.0274 2.4434 -3.7363 255 255 255
-0.0336 2.4360 -3.6899 81 118 153
-0.0405 2.4421 -3.7669 72 110 145
-0.0579 2.4460 -3.8242 73 107 133
-0.0817 2.4485 -3.8697 75 100 122
-0.1083 2.4505 -3.9117 73 106 125
-0.1356 2.4527 -3.9551 67 109 143
-0.1624 2.4552 -4.0035 69 107 141
-0.1953 2.4563 -4.0385 72 102 147
-0.2294 2.4573 -4.0727 70 103 139
-0.2617 2.4592 -4.1165 68 104 139
-0.3003 2.4592 -4.1431 73 102 131
-0.3367 2.4604 -4.1808 69 99 126
-0.4002 2.4515 -4.1176 66 93 130
-0.4511 2.4470 -4.0986 69 92 114
-1.0044 2.2282 -1.8725 82 96 109
-1.0418 2.2160 -1.7528 109 114 117
-1.0655 2.2089 -1.6840 117 124 122
-1.0841 2.2034 -1.6318 111 111 102
-1.0992 2.1991 -1.5908 113 118 112
-1.1125 2.1952 -1.5535 91 90 85
-1.1240 2.1919 -1.5209 104 102 104
-1.1344 2.1887 -1.4901 96 103 95
-1.1434 2.1858 -1.4626 86 86 86
-1.1513 2.1833 -1.4376 107 100 95
-1.1590 2.1803 -1.4069 129 134 128
-1.1652 2.1779 -1.3832 159 160 153
-1.1706 2.1759 -1.3632 176 171 156
-1.1753 2.1742 -1.3461 193 182 159
-1.1793 2.1732 -1.3362 211 203 175
-1.1831 2.1724 -1.3293 225 213 191
-1.1867 2.1718 -1.3249 228 214 192
-1.1902 2.1714 -1.3227 219 199 176
-1.1938 2.1712 -1.3227 182 153 123
-1.1972 2.1708 -1.3202 139 113 101
-1.2003 2.1702 -1.3152 132 102 80
-1.2025 2.1690 -1.3023 153 134 122
-1.2052 2.1684 -1.2966 169 150 133
-1.2077 2.1678 -1.2916 173 162 156
-1.2102 2.1673 -1.2875 182 174 158
-1.2127 2.1669 -1.2843 189 175 160
-1.2153 2.1666 -1.2819 192 182 166
-1.2179 2.1663 -1.2801 196 184 166
-1.2205 2.1660 -1.2786 195 183 158
-1.2232 2.1658 -1.2776 196 184 166
-1.2258 2.1655 -1.2768 195 183 156
-1.2286 2.1653 -1.2763 188 175 164
-1.2314 2.1652 -1.2764 191 168 148
-1.2346 2.1651 -1.2774 171 161 143
-1.2380 2.1651 -1.2793 161 149 133
-1.2453 2.1659 -1.2937 126 113 105
-1.2776 2.1717 -1.3848 63 61 66
-1.2905 2.1731 -1.4098 63 57 72
-1.2950 2.1728 -1.4088 60 64 79
-1.3001 2.1725 -1.4094 63 76 80
-1.3059 2.1724 -1.4117 68 82 79
-1.3061 2.1714 -1.4000 78 85 88
-1.2600 2.1636 -1.2766 100 92 82
-1.2624 2.1634 -1.2757 107 99 85
-1.2640 2.1631 -1.2729 110 101 78
-1.2655 2.1627 -1.2701 120 100 95
-1.2673 2.1625 -1.2680 110 97 88
-1.2691 2.1622 -1.2662 117 93 83
-1.2710 2.1620 -1.2647 111 98 85
-1.2732 2.1618 -1.2637 109 94 86
-1.2754 2.1616 -1.2630 103 95 76
-1.2779 2.1614 -1.2626 101 91 79
-1.2804 2.1613 -1.2624 120 111 113
-1.2832 2.1611 -1.2627 131 130 146
-1.2867 2.1611 -1.2643 161 176 186
-0.0522 2.4004 -2.9409 255 255 255
-0.0623 2.4029 -2.9717 255 255 255
-0.0581 2.4088 -3.0287 255 255 255
-0.0501 2.4159 -3.0956 255 255 255
-0.0337 2.4254 -3.1814 255 255 255
-0.0222 2.4342 -3.2631 255 255 255
-0.0111 2.4433 -3.3488 255 255 255
-0.0053 2.4517 -3.4292 255 255 255
-0.0017 2.4600 -3.5101 255 255 255
0.0071 2.4701 -3.6073 255 255 255
0.0129 2.4801 -3.7042 255 255 255
-0.0510 2.4712 -3.6505 82 115 151
-0.0586 2.4781 -3.7247 72 110 145
-0.0783 2.4820 -3.7751 71 102 136
-0.1034 2.4846 -3.8154 75 100 124
-0.1328 2.4862 -3.8481 72 100 123
-0.1674 2.4864 -3.8691 84 126 166
-0.2127 2.4831 -3.8612 160 209 250
-0.2503 2.4824 -3.8757 179 232 255
-0.2803 2.4847 -3.9157 212 255 255
-0.3118 2.4867 -3.9542 222 255 255
-0.3504 2.4864 -3.9726 211 255 255
-0.3987 2.4822 -3.9574 174 227 255
-0.4319 2.4844 -3.9989 156 198 241
-0.6366 2.4072 -3.3393 62 88 109
-1.0179 2.2337 -1.8145 103 112 131
-1.0470 2.2237 -1.7299 112 116 117
-1.0685 2.2165 -1.6704 112 119 120
-1.0859 2.2109 -1.6235 103 107 118
-1.1002 2.2063 -1.5863 108 114 121
-1.1128 2.2023 -1.5531 94 103 101
-1.1241 2.1986 -1.5224 98 102 101
-1.1341 2.1953 -1.4943 96 102 96
-1.1431 2.1921 -1.4673 72 85 91
-1.1510 2.1893 -1.4437 79 88 90
-1.1600 2.1840 -1.3964 128 139 144
-1.1661 2.1813 -1.3725 151 149 145
-1.1713 2.1790 -1.3517 188 182 170
-1.1757 2.1774 -1.3384 184 171 169
-1.1796 2.1762 -1.3292 216 208 191
-1.1833 2.1754 -1.3229 227 215 199
-1.1868 2.1748 -1.3190 216 203 192
-1.1902 2.1744 -1.3169 215 193 178
-1.1937 2.1741 -1.3160 186 171 156
-1.1972 2.1741 -1.3174 150 121 112
-1.2006 2.1738 -1.3165 124 98 85
-1.2038 2.1733 -1.3133 114 85 76
-1.2056 2.1717 -1.2983 143 131 114
-1.2080 2.1710 -1.2922 162 147 130
-1.2104 2.1703 -1.2871 179 156 150
-1.2128 2.1698 -1.2835 181 172 153
-1.2153 2.1694 -1.2808 177 169 155
-1.2179 2.1691 -1.2786 187 174 157
-1.2204 2.1687 -1.2770 182 177 160
-1.2230 2.1685 -1.2758 181 176 152
-1.2256 2.1682 -1.2749 187 174 157
-1.2283 2.1680 -1.2742 179 175 146
-1.2310 2.1678 -1.2739 184 175 149
-1.2340 2.1677 -1.2743 178 170 156
-1.2371 2.1677 -1.2755 168 156 134
-1.2408 2.1677 -1.2782 165 138 128
-1.2486 2.1688 -1.2936 126 101 97
-1.2790 2.1751 -1.3743 65 65 67
-1.2874 2.1758 -1.3859 60 73 84
-1.2934 2.1759 -1.3899 60 76 98
-1.2980 2.1756 -1.3899 62 85 103
-1.3009 2.1750 -1.3856 78 88 106
-1.3044 2.1746 -1.3833 76 90 110
-1.2643 2.1665 -1.2795 93 89 90
-1.2654 2.1660 -1.2754 113 93 82
-1.2666 2.1656 -1.2718 104 93 91
-1.2680 2.1653 -1.2689 103 95 83
-1.2697 2.1650 -1.2668 106 93 87
-1.2715 2.1647 -1.2651 107 92 81
-1.2735 2.1644 -1.2638 99 90 85
-1.2757 2.1642 -1.2628 104 89 85
-1.2780 2.1640 -1.2622 110 100 86
-1.2802 2.1638 -1.2615 125 111 114
-1.2828 2.1637 -1.2614 139 124 134
-1.2859 2.1636 -1.2622 168 160 176
-0.0740 2.4235 -2.9041 255 255 255
-0.0833 2.4266 -2.9354 255 255 255
-0.0765 2.4340 -2.9960 255 255 255
-0.0679 2.4422 -3.0632 255 255 255
-0.0508 2.4531 -3.1493 255 255 255
-0.0380 2.4634 -3.2326 255 255 255
-0.0293 2.4731 -3.3128 255 255 255
-0.0237 2.4825 -3.3919 255 255 255
-0.0170 2.4928 -3.4781 255 255 255
-0.0083 2.5044 -3.5741 255 255 255
-0.0012 2.5162 -3.6732 255 255 255
-0.0631 2.5069 -3.6230 74 111 132
-0.0674 2.5160 -3.7040 68 104 139
-0.0845 2.5215 -3.7601 62 97 116
-0.1103 2.5244 -3.7986 59 91 116
-0.1434 2.5252 -3.8210 60 90 110
-0.1843 2.5232 -3.8237 57 96 119
-0.2304 2.5192 -3.8119 60 94 114
-0.2696 2.5179 -3.8199 74 90 114
-0.3097 2.5163 -3.8254 54 91 119
-0.3448 2.5169 -3.8481 56 83 113
-0.3916 2.5125 -3.8326 53 90 111
-0.4443 2.5051 -3.7939 52 89 112
-0.4885 2.5013 -3.7832 63 90 118
-0.9712 2.2646 -1.9624 75 90 96
-1.0239 2.2417 -1.7894 103 121 128
-1.0501 2.2318 -1.7164 104 102 104
-1.0706 2.2243 -1.6609 115 128 134
-1.0871 2.2184 -1.6183 100 100 102
-1.1008 2.2138 -1.5843 86 107 109
-1.1129 2.2096 -1.5544 88 95 93
-1.1239 2.2057 -1.5260 90 88 90
-1.1337 2.2022 -1.4999 90 90 85
-1.1427 2.1987 -1.4741 77 77 79
-1.1505 2.1958 -1.4524 68 78 78
-1.1611 2.1873 -1.3841 126 124 124
-1.1669 2.1845 -1.3624 144 145 140
-1.1718 2.1822 -1.3451 176 170 163
-1.1761 2.1805 -1.3324 187 184 171
-1.1799 2.1793 -1.3235 208 200 197
-1.1835 2.1785 -1.3182 213 191 183
-1.1869 2.1779 -1.3148 218 191 186
-1.1903 2.1774 -1.3126 206 183 163
-1.1936 2.1771 -1.3114 197 178 155
-1.1971 2.1770 -1.3117 173 150 134
-1.2007 2.1771 -1.3149 113 87 81
-1.2041 2.1768 -1.3141 102 88 84
-1.2073 2.1764 -1.3120 92 81 76
-1.2084 2.1742 -1.2938 147 123 103
-1.2106 2.1734 -1.2875 160 146 129
-1.2130 2.1728 -1.2832 164 149 132
-1.2154 2.1723 -1.2800 168 155 149
-1.2179 2.1718 -1.2775 169 161 151
-1.2204 2.1715 -1.2756 178 167 142
-1.2229 2.1712 -1.2742 180 167 152
-1.2255 2.1709 -1.2731 171 159 148
-1.2281 2.1707 -1.2724 176 156 145
-1.2308 2.1705 -1.2719 173 163 149
-1.2335 2.1703 -1.2718 174 156 133
-1.2366 2.1702 -1.2726 170 151 130
-1.2399 2.1702 -1.2743 166 144 135
-1.2437 2.1704 -1.2774 152 133 121
-1.2502 2.1712 -1.2882 123 108 98
-1.2811 2.1785 -1.3666 74 80 87
-1.2885 2.1791 -1.3752 62 79 98
-1.2937 2.1791 -1.3776 62 89 92
-1.2978 2.1787 -1.3767 75 87 109
-1.3013 2.1783 -1.3746 83 95 115
-1.3037 2.1776 -1.3700 77 88 110
-1.2670 2.1692 -1.2783 96 77 70
-1.2678 2.1686 -1.2737 100 88 77
-1.2690 2.1681 -1.2703 100 89 82
-1.2705 2.1677 -1.2678 101 86 76
-1.2721 2.1674 -1.2656 97 82 74
-1.2740 2.1671 -1.2640 92 80 69
-1.2760 2.1669 -1.2628 106 93 89
-1.2781 2.1666 -1.2619 109 102 99
-1.2802 2.1664 -1.2610 116 116 118
-1.2826 2.1662 -1.2606 136 124 133
-1.2852 2.1661 -1.2606 146 138 151
-0.1022 2.4440 -2.8569 255 255 255
-0.1071 2.4486 -2.8944 255 255 255
-0.1023 2.4562 -2.9506 255 255 255
-0.0909 2.4661 -3.0215 255 255 255
-0.0733 2.4783 -3.1076 255 255 255
-0.0631 2.4890 -3.1849 255 255 255
-0.0543 2.4998 -3.2641 255 255 255
-0.0495 2.5100 -3.3400 255 255 255
-0.0421 2.5217 -3.4263 255 255 255
-0.0355 2.5338 -3.5162 255 255 255
-0.0459 2.5409 -3.5752 255 255 255
-0.0910 2.5364 -3.5598 74 107 143
-0.0885 2.5489 -3.6547 61 98 124
-0.0990 2.5575 -3.7252 71 99 117
-0.1192 2.5631 -3.7767 64 97 112
-0.1546 2.5631 -3.7922 57 89 111
-0.1988 2.5597 -3.7851 57 89 109
-0.2449 2.5554 -3.7717 53 85 112
-0.2886 2.5520 -3.7645 50 88 121
-0.3302 2.5494 -3.7631 54 91 117
-0.3673 2.5491 -3.7764 55 85 110
-0.4140 2.5440 -3.7576 53 82 110
-0.4592 2.5394 -3.7421 53 87 109
-0.5134 2.5295 -3.6900 52 84 107
-0.9873 2.2687 -1.8973 72 89 97
-1.0272 2.2506 -1.7761 103 114 118
-1.0520 2.2404 -1.7085 103 101 101
-1.0718 2.2325 -1.6564 106 106 102
-1.0877 2.2264 -1.6166 91 89 90
-1.1010 2.2215 -1.5847 75 82 82
-1.1128 2.2172 -1.5569 78 85 88
-1.1234 2.2132 -1.5311 79 84 83
-1.1332 2.2094 -1.5064 86 86 86
-1.1420 2.2058 -1.4825 77 75 76
-1.1501 2.2024 -1.4597 68 82 83
-1.1621 2.1904 -1.3735 137 135 131
-1.1674 2.1879 -1.3564 147 138 133
-1.1722 2.1855 -1.3403 166 165 149
-1.1764 2.1836 -1.3273 197 190 192
-1.1801 2.1823 -1.3194 195 180 174
-1.1837 2.1815 -1.3144 206 183 163
-1.1870 2.1809 -1.3112 199 179 154
-1.1904 2.1804 -1.3088 198 180 150
-1.1936 2.1800 -1.3072 199 179 156
-1.1970 2.1797 -1.3067 184 165 148
-1.2004 2.1797 -1.3082 154 124 104
-1.2043 2.1803 -1.3139 85 73 71
-1.2079 2.1803 -1.3155 76 68 58
-1.2110 2.1797 -1.3126 78 68 77
-1.2111 2.1766 -1.2888 138 118 116
-1.2133 2.1758 -1.2833 155 136 119
-1.2156 2.1751 -1.2795 163 148 133
-1.2180 2.1746 -1.2768 162 153 148
-1.2204 2.1742 -1.2746 164 152 141
-1.2229 2.1739 -1.2730 173 158 146
-1.2254 2.1736 -1.2718 167 156 126
-1.2280 2.1733 -1.2709 167 153 140
-1.2306 2.1731 -1.2702 164 152 134
-1.2333 2.1729 -1.2700 161 154 130
-1.2361 2.1728 -1.2702 165 152 123
-1.2392 2.1727 -1.2711 162 147 132
-1.2426 2.1728 -1.2730 160 138 129
-1.2465 2.1730 -1.2763 148 124 111
